ply
format ascii 1.0
element face 0
property list uchar int vertex_indices
element vertex 319
property float x
property float y
property float z
property uchar diffuse_red
property uchar diffuse_green
property uchar diffuse_blue
end_header
0.00000 0.00000 0.00000 255 255 255
0.00223 -0.00014 0.00991 255 255 255
0.00354 -0.00232 0.01132 255 255 255
0.00472 -0.00377 0.01146 255 255 255
0.00459 -0.00200 0.01266 255 255 255
0.00292 0.00060 0.01604 0 0 0
0.00127 0.00007 0.02130 0 0 0
0.00045 0.00191 0.02591 0 0 0
-0.00095 0.00245 0.03076 0 0 0
-0.00205 -0.00216 0.03423 0 0 0
-0.00298 0.00210 0.03425 0 0 0
-0.00802 0.00352 0.03677 0 0 0
-0.01255 0.00455 0.04003 0 0 0
-0.01492 0.00581 0.04121 0 0 0
-0.01775 0.00792 0.04371 0 0 0
-0.02032 0.01094 0.04553 0 0 0
-0.02154 0.01388 0.04958 0 0 0
-0.02286 0.01569 0.05228 0 0 0
-0.02422 0.01986 0.05577 0 0 0
-0.02528 0.02461 0.06180 0 0 0
-0.02668 0.02746 0.06716 0 0 0
-0.02909 0.03126 0.07344 0 0 0
-0.03196 0.03524 0.08064 0 0 0
-0.03336 0.03792 0.08631 0 0 0
-0.03506 0.04189 0.09237 0 0 0
-0.03754 0.04756 0.09824 0 0 0
-0.04185 0.05430 0.10297 0 0 0
-0.04573 0.06184 0.10902 0 0 0
-0.04908 0.06606 0.11463 0 0 0
-0.05303 0.07236 0.11967 0 0 0
-0.05696 0.07823 0.12595 0 0 0
-0.06016 0.08096 0.13286 255 255 255
-0.06335 0.08408 0.13967 255 255 255
-0.06669 0.08676 0.14682 255 255 255
-0.07054 0.08962 0.15428 255 255 255
-0.07477 0.09168 0.16331 255 255 255
-0.07822 0.09321 0.17059 0 0 0
-0.08190 0.09535 0.17634 0 0 0
-0.08627 0.09775 0.18161 0 0 0
-0.09121 0.10023 0.18783 0 0 0
-0.09646 0.10329 0.19319 0 0 0
-0.10188 0.10656 0.19826 0 0 0
-0.10735 0.11023 0.20376 0 0 0
-0.11330 0.11401 0.21007 0 0 0
-0.12008 0.11776 0.21799 0 0 0
-0.12637 0.12148 0.22624 0 0 0
-0.13276 0.12541 0.23294 0 0 0
-0.13995 0.12961 0.24064 0 0 0
-0.14684 0.13314 0.24853 0 0 0
-0.15384 0.13680 0.25460 0 0 0
-0.16028 0.13980 0.26065 0 0 0
-0.16621 0.14269 0.26761 0 0 0
-0.17293 0.14616 0.27347 0 0 0
-0.17964 0.14902 0.27975 0 0 0
-0.18609 0.15239 0.28663 0 0 0
-0.19404 0.15722 0.29151 0 0 0
-0.20102 0.15990 0.29786 255 255 255
-0.20842 0.16206 0.30482 255 255 255
-0.21690 0.16367 0.30996 255 255 255
-0.22524 0.16552 0.31507 255 255 255
-0.23454 0.16624 0.32119 255 255 255
-0.24147 0.17175 0.32408 0 0 0
-0.25089 0.17588 0.32718 0 0 0
-0.26389 0.17544 0.33171 0 0 0
-0.27687 0.17709 0.33355 0 0 0
-0.28891 0.17943 0.33652 0 0 0
-0.30113 0.18153 0.34176 0 0 0
-0.31409 0.18502 0.34405 0 0 0
-0.32518 0.18885 0.34763 0 0 0
-0.33737 0.19192 0.35272 0 0 0
-0.34970 0.19503 0.35683 0 0 0
-0.36074 0.19612 0.36060 0 0 0
-0.37186 0.19935 0.36508 0 0 0
-0.38683 0.20059 0.36946 0 0 0
-0.39964 0.20102 0.37407 0 0 0
-0.41305 0.20223 0.37720 0 0 0
-0.42630 0.20340 0.37919 0 0 0
-0.43425 0.20858 0.38457 0 0 0
-0.44794 0.20804 0.38849 0 0 0
-0.46101 0.20685 0.39134 0 0 0
-0.47169 0.20624 0.39498 255 255 255
-0.48372 0.20609 0.39570 255 255 255
-0.49548 0.20498 0.39731 255 255 255
-0.50622 0.20229 0.40058 255 255 255
-0.51600 0.20240 0.40323 255 255 255
-0.52738 0.20001 0.40636 0 0 0
-0.53793 0.19904 0.40848 0 0 0
-0.54813 0.19832 0.41181 0 0 0
-0.55856 0.19657 0.41618 0 0 0
-0.56968 0.19304 0.42158 0 0 0
-0.58071 0.19186 0.42587 0 0 0
-0.59161 0.19014 0.43172 0 0 0
-0.60188 0.18671 0.43866 0 0 0
-0.61148 0.18485 0.44541 0 0 0
-0.62105 0.18152 0.45243 0 0 0
-0.63038 0.17737 0.45815 0 0 0
-0.63877 0.17271 0.46617 0 0 0
-0.64689 0.16823 0.47169 0 0 0
-0.65441 0.16291 0.47746 0 0 0
-0.66074 0.15772 0.48561 0 0 0
-0.66698 0.15135 0.49191 0 0 0
-0.67141 0.14528 0.49858 0 0 0
-0.67592 0.13933 0.50492 0 0 0
-0.68024 0.13201 0.51106 0 0 0
-0.68351 0.12490 0.51753 0 0 0
-0.68573 0.11746 0.52495 0 0 0
-0.68713 0.11094 0.53234 255 255 255
-0.68741 0.10393 0.54094 255 255 255
-0.68858 0.09783 0.54891 255 255 255
-0.69032 0.09193 0.55737 255 255 255
-0.69144 0.08691 0.56729 255 255 255
-0.69343 0.07919 0.57866 0 0 0
-0.69528 0.07323 0.58962 0 0 0
-0.69557 0.06674 0.60298 0 0 0
-0.69796 0.05651 0.61678 0 0 0
-0.70071 0.04561 0.63030 0 0 0
-0.70165 0.03384 0.64607 0 0 0
-0.70412 0.02083 0.66089 0 0 0
-0.70645 0.01031 0.67436 0 0 0
-0.70891 -0.00109 0.68846 0 0 0
-0.71380 -0.01199 0.70081 0 0 0
-0.72008 -0.02357 0.71282 0 0 0
-0.72609 -0.03616 0.72703 0 0 0
-0.73201 -0.04843 0.74051 0 0 0
-0.73915 -0.06114 0.75379 0 0 0
-0.74489 -0.07161 0.76771 0 0 0
-0.75113 -0.08223 0.78166 0 0 0
-0.75784 -0.09421 0.79546 0 0 0
-0.76571 -0.10568 0.80759 0 0 0
-0.77228 -0.11539 0.81827 0 0 0
-0.77866 -0.12565 0.83044 255 255 255
-0.78631 -0.13616 0.84118 255 255 255
-0.79287 -0.14497 0.85000 255 255 255
-0.79878 -0.15376 0.85941 255 255 255
-0.80443 -0.16200 0.86937 255 255 255
-0.81190 -0.16932 0.87718 0 0 0
-0.81778 -0.17695 0.88578 0 0 0
-0.82555 -0.18496 0.89374 0 0 0
-0.83120 -0.19164 0.90138 0 0 0
-0.83728 -0.19759 0.90903 0 0 0
-0.84409 -0.20264 0.91587 0 0 0
-0.85116 -0.20857 0.92266 0 0 0
-0.85760 -0.21486 0.92903 0 0 0
-0.86457 -0.22049 0.93553 0 0 0
-0.87136 -0.22455 0.94054 0 0 0
-0.87854 -0.22905 0.94680 0 0 0
-0.88692 -0.23406 0.95247 0 0 0
-0.89476 -0.23805 0.95793 0 0 0
-0.90289 -0.24287 0.96377 0 0 0
-0.91243 -0.24906 0.96990 0 0 0
-0.92224 -0.25390 0.97442 0 0 0
-0.93026 -0.25825 0.97941 0 0 0
-0.94073 -0.26530 0.98564 0 0 0
-0.95041 -0.27181 0.99094 0 0 0
-0.95779 -0.27754 0.99644 0 0 0
-0.96707 -0.28238 1.00065 255 255 255
-0.97932 -0.28812 1.00483 255 255 255
-0.99164 -0.29376 1.00936 255 255 255
-1.00470 -0.30135 1.01472 255 255 255
-1.01748 -0.30912 1.01999 255 255 255
-1.02931 -0.31240 1.02162 0 0 0
-1.04117 -0.31401 1.02339 0 0 0
-1.05374 -0.31479 1.02446 0 0 0
-1.06765 -0.31854 1.02793 0 0 0
-1.07742 -0.32300 1.03212 0 0 0
-1.08752 -0.32925 1.03750 0 0 0
-1.10415 -0.33548 1.04188 0 0 0
-1.11967 -0.34079 1.04447 0 0 0
-1.13160 -0.34456 1.04596 0 0 0
-1.14362 -0.34856 1.04761 0 0 0
-1.15525 -0.35422 1.05001 0 0 0
-1.16578 -0.36031 1.05203 0 0 0
-1.17511 -0.36659 1.05545 0 0 0
-1.18518 -0.37303 1.05909 0 0 0
-1.19435 -0.37947 1.06168 0 0 0
-1.20405 -0.38525 1.06391 0 0 0
-1.21215 -0.39157 1.06599 0 0 0
-1.21920 -0.39688 1.06840 255 255 255
-1.22550 -0.40218 1.07203 255 255 255
-1.23203 -0.40734 1.07539 255 255 255
-1.23630 -0.41131 1.07907 255 255 255
-1.24125 -0.41665 1.08549 255 255 255
-1.24741 -0.42098 1.09230 255 255 255
-1.25302 -0.42437 1.09903 255 255 255
-1.25805 -0.43136 1.10796 255 255 255
-1.26186 -0.43801 1.11672 0 0 0
-1.26446 -0.44386 1.12572 0 0 0
-1.26776 -0.45304 1.13729 0 0 0
-1.27135 -0.46201 1.14693 0 0 0
-1.27248 -0.46771 1.15481 0 0 0
-1.27362 -0.47735 1.16519 0 0 0
-1.27379 -0.48599 1.17425 0 0 0
-1.27251 -0.49518 1.18503 0 0 0
-1.27329 -0.50211 1.19336 0 0 0
-1.27141 -0.50742 1.20058 0 0 0
-1.27099 -0.51550 1.21063 0 0 0
-1.26990 -0.52053 1.21844 0 0 0
-1.26982 -0.52544 1.22611 0 0 0
-1.26957 -0.53170 1.23561 0 0 0
-1.26878 -0.53345 1.24115 0 0 0
-1.26944 -0.53642 1.24794 0 0 0
-1.26818 -0.53857 1.25292 0 0 0
-1.26279 -0.54389 1.26005 0 0 0
-1.25987 -0.54365 1.26482 255 255 255
-1.25853 -0.54068 1.26623 255 255 255
-1.25634 -0.53851 1.26844 255 255 255
-1.25341 -0.53488 1.27012 255 255 255
-1.25012 -0.53094 1.27029 255 255 255
-1.24592 -0.52423 1.26896 255 255 255
-1.24263 -0.51547 1.26660 255 255 255
-1.23837 -0.50696 1.26278 255 255 255
-1.23281 -0.49672 1.25727 255 255 255
-1.22772 -0.48606 1.25206 255 255 255
-1.22076 -0.47437 1.24462 0 0 0
-1.21247 -0.45998 1.23727 0 0 0
-1.20703 -0.44705 1.23190 0 0 0
-1.20053 -0.43641 1.22748 0 0 0
-1.19178 -0.42018 1.21976 0 0 0
-1.18741 -0.40768 1.21566 0 0 0
-1.18105 -0.39342 1.20805 0 0 0
-1.17396 -0.37803 1.20115 0 0 0
-1.17116 -0.36606 1.19698 0 0 0
-1.16547 -0.35219 1.18999 0 0 0
-1.15894 -0.33839 1.18340 0 0 0
-1.15475 -0.32446 1.17804 0 0 0
-1.15143 -0.31143 1.17183 0 0 0
-1.14764 -0.29531 1.16441 0 0 0
-1.14483 -0.28271 1.15611 255 255 255
-1.13925 -0.27035 1.14721 255 255 255
-1.13267 -0.25615 1.13796 255 255 255
-1.12735 -0.24582 1.12928 255 255 255
-1.12041 -0.23286 1.11865 255 255 255
-1.11396 -0.21977 1.10803 0 0 0
-1.10948 -0.20824 1.09751 0 0 0
-1.10677 -0.19558 1.08502 0 0 0
-1.09995 -0.18241 1.07386 0 0 0
-1.09342 -0.17319 1.06469 0 0 0
-1.08714 -0.16365 1.05501 0 0 0
-1.08119 -0.15602 1.04611 0 0 0
-1.07394 -0.14712 1.03661 0 0 0
-1.06812 -0.13887 1.02768 0 0 0
-1.06290 -0.13240 1.01960 0 0 0
-1.05683 -0.12441 1.01032 0 0 0
-1.05246 -0.11621 1.00228 0 0 0
-1.04802 -0.10980 0.99399 0 0 0
-1.04237 -0.10175 0.98491 0 0 0
-1.03805 -0.09383 0.97711 0 0 0
-1.03387 -0.08674 0.96833 0 0 0
-1.02910 -0.07768 0.95989 0 0 0
-1.02596 -0.07156 0.95306 255 255 255
-1.02336 -0.06471 0.94482 255 255 255
-1.01903 -0.05581 0.93548 255 255 255
-1.01533 -0.04929 0.92885 255 255 255
-1.01339 -0.04400 0.92254 255 255 255
-1.01116 -0.03561 0.91335 255 255 255
-1.01078 -0.02930 0.90533 0 0 0
-1.00973 -0.02391 0.89824 0 0 0
-1.00639 -0.01681 0.89058 0 0 0
-1.00358 -0.00891 0.88420 0 0 0
-1.00231 -0.00277 0.87879 0 0 0
-1.00034 0.00183 0.87480 0 0 0
-0.99740 0.00925 0.86932 0 0 0
-0.99595 0.01565 0.86431 0 0 0
-0.99444 0.02158 0.85997 0 0 0
-0.99300 0.02638 0.85656 0 0 0
-0.99142 0.03132 0.85312 0 0 0
-0.99129 0.03493 0.85057 0 0 0
-0.99085 0.03950 0.84805 0 0 0
-0.99187 0.04106 0.84709 0 0 0
-0.99440 0.04251 0.84547 0 0 0
-0.99658 0.04302 0.84442 0 0 0
-0.99978 0.03939 0.84661 0 0 0
-1.00275 0.03728 0.84740 0 0 0
-1.00669 0.03295 0.84958 255 255 255
-1.01129 0.02776 0.85306 255 255 255
-1.01601 0.02052 0.85832 255 255 255
-1.02025 0.01388 0.86247 255 255 255
-1.02358 0.00636 0.86882 255 255 255
-1.02710 -0.00237 0.87697 255 255 255
-1.03166 -0.01134 0.88484 0 0 0
-1.03546 -0.02033 0.89374 0 0 0
-1.03928 -0.03028 0.90344 0 0 0
-1.04342 -0.04093 0.91414 0 0 0
-1.04727 -0.05187 0.92447 0 0 0
-1.05094 -0.06241 0.93642 0 0 0
-1.05427 -0.07530 0.95040 0 0 0
-1.05771 -0.08801 0.96351 0 0 0
-1.06104 -0.10009 0.97729 0 0 0
-1.06337 -0.11324 0.99243 0 0 0
-1.06615 -0.12658 1.00796 0 0 0
-1.06797 -0.14082 1.02556 0 0 0
-1.07072 -0.15394 1.04047 0 0 0
-1.07223 -0.16719 1.05688 0 0 0
-1.07395 -0.18139 1.07314 0 0 0
-1.07573 -0.19575 1.08862 0 0 0
-1.07694 -0.20788 1.10224 0 0 0
-1.07793 -0.22308 1.12081 255 255 255
-1.08038 -0.23912 1.13476 255 255 255
-1.08097 -0.25095 1.14722 255 255 255
-1.08213 -0.26437 1.15988 255 255 255
-1.08256 -0.27600 1.17069 255 255 255
-1.08267 -0.28847 1.18139 0 0 0
-1.08196 -0.30015 1.19147 0 0 0
-1.08216 -0.31194 1.20031 0 0 0
-1.08211 -0.32187 1.20833 0 0 0
-1.08202 -0.33283 1.21630 0 0 0
-1.08143 -0.34261 1.22384 0 0 0
-1.08024 -0.35254 1.23183 0 0 0
-1.07817 -0.36351 1.24020 0 0 0
-1.07631 -0.37483 1.24873 0 0 0
-1.07506 -0.38465 1.25645 0 0 0
-1.07285 -0.39355 1.26330 0 0 0
-1.06963 -0.40121 1.27041 0 0 0
-1.06901 -0.41241 1.27763 0 0 0
-1.06887 -0.42024 1.28345 0 0 0
-1.06231 -0.43043 1.29180 0 0 0
-1.05699 -0.44107 1.29901 0 0 0
-1.05167 -0.44922 1.30646 0 0 0
-1.04853 -0.45884 1.31443 255 255 255
